ply
format ascii 1.0
element face 0
property list uchar int vertex_indices
element vertex 527
property float x
property float y
property float z
property uchar diffuse_red
property uchar diffuse_green
property uchar diffuse_blue
end_header
1.808066e+00 -1.008221e+00 -6.619508e+00 203 182 70
2.036309e+00 -7.524896e-01 -6.075698e+00 221 195 83
2.036309e+00 -7.524896e-01 -6.075698e+00 221 195 83
2.052120e+00 -7.430582e-01 -6.038713e+00 177 153 51
2.045675e+00 -6.479611e-01 -6.037786e+00 214 189 76
2.053525e+00 -5.811795e-01 -6.013509e+00 215 190 73
2.041254e+00 -6.857456e-01 -6.054373e+00 215 191 85
2.313594e+00 -3.745589e-01 -5.287078e+00 226 182 185
2.021692e+00 -8.400496e-01 -6.117648e+00 212 189 70
1.807887e+00 -9.673811e-01 -6.611685e+00 41 28 0
1.807887e+00 -9.673811e-01 -6.611685e+00 41 28 0
2.321188e+00 -2.751769e-01 -5.279129e+00 234 192 195
2.315240e+00 -3.187844e-01 -5.294012e+00 239 180 181
1.965633e+00 -5.388309e-01 -6.194392e+00 218 186 68
-6.029124e-01 4.809578e-01 -4.502853e+00 21 27 43
-6.015582e-01 4.813100e-01 -4.502263e+00 21 27 43
-6.029124e-01 4.809578e-01 -4.502853e+00 21 27 43
-5.850150e-01 -1.665710e-01 -4.914313e+00 23 24 28
8.883523e-01 7.450583e-02 -5.518171e+00 210 178 197
1.881935e-01 3.302047e-01 -5.372937e+00 152 22 32
-6.412954e-01 5.760031e-01 -4.522467e+00 192 205 242
1.043108e+00 1.887679e-02 -5.385648e+00 180 117 131
1.285926e+00 2.061944e-01 -5.443144e+00 188 119 130
1.004599e+00 5.186270e-01 -5.395391e+00 213 193 208
1.004599e+00 5.186270e-01 -5.395391e+00 213 193 208
4.569728e-01 4.517007e-01 -5.271146e+00 72 2 3
-5.897445e-01 3.724458e-01 -4.548925e+00 187 201 240
8.533536e-01 5.118649e-01 -5.392947e+00 95 0 2
5.346892e-01 8.849141e-01 -5.429314e+00 163 18 29
2.160903e+00 -9.585974e-01 -5.728332e+00 202 197 106
1.000359e+00 6.899025e-02 -5.455583e+00 72 5 8
1.449141e-01 4.105244e-01 -5.357025e+00 225 56 94
1.449141e-01 4.105244e-01 -5.357025e+00 225 56 94
-3.389686e-01 4.175161e-01 -4.572152e+00 108 54 70
2.794851e-01 5.868941e-01 -5.282460e+00 217 202 221
-6.444516e-01 4.778091e-01 -4.484925e+00 18 20 30
4.845805e-01 9.608872e-01 -5.427222e+00 171 150 172
2.317440e+00 -3.763630e-01 -5.293842e+00 226 182 185
9.206461e-01 -3.426999e-02 -5.458941e+00 51 9 18
8.465644e-01 1.376768e-01 -5.558303e+00 139 29 46
-2.647344e-01 3.064013e-01 -4.529811e+00 157 99 113
1.043582e+00 5.963161e-01 -5.412154e+00 44 9 7
2.458794e-01 5.246608e-01 -5.267249e+00 82 11 26
-3.517912e-01 4.542781e-01 -4.564364e+00 235 181 195
-6.790298e-01 4.368592e-01 -4.522318e+00 183 230 255
-6.180010e-01 5.397911e-01 -4.410074e+00 179 225 255
-6.417040e-01 5.911392e-01 -4.507887e+00 243 231 243
-5.600137e-01 6.810088e-01 -4.466161e+00 225 165 177
9.649944e-01 8.283235e-03 -5.476923e+00 66 13 22
1.209530e+00 1.095471e-01 -5.391346e+00 95 35 39
1.102650e+00 1.144435e-01 -5.437344e+00 172 101 113
7.020454e-01 1.956917e-01 -5.509938e+00 115 4 13
9.218166e-01 5.492998e-01 -5.381123e+00 104 11 16
6.378629e-02 5.523957e-01 -5.272388e+00 108 9 22
-6.123434e-01 4.529286e-01 -4.514494e+00 255 254 254
6.085174e-01 8.497374e-01 -5.432424e+00 153 14 28
-6.473395e-01 6.897749e-01 -4.481068e+00 227 167 179
-7.406389e-01 6.887720e-01 -4.490799e+00 133 74 96
5.119634e-01 1.000913e+00 -5.422200e+00 166 22 33
1.504744e+00 1.133812e+00 -5.219530e+00 69 31 28
1.504744e+00 1.133812e+00 -5.219530e+00 69 31 28
1.688600e+00 -3.379391e+00 -1.247059e+01 97 90 106
-1.194804e+00 -2.828411e+00 -1.266727e+01 72 44 55
2.037860e+00 -7.191572e-01 -6.060607e+00 214 191 78
-5.862009e-01 -1.132903e-01 -4.896102e+00 251 253 255
9.299820e-01 -2.662936e-03 -5.511332e+00 173 134 153
1.980173e+00 5.387572e-01 -6.145818e+00 110 64 25
-5.951408e-01 3.971349e-01 -4.515469e+00 165 217 254
-7.031808e-01 4.132369e-01 -4.528571e+00 168 156 197
-3.881162e-01 5.685844e-01 -4.501976e+00 170 104 126
-6.032079e-01 6.655240e-01 -4.470854e+00 178 107 123
-6.399636e-01 6.625255e-01 -4.468243e+00 174 107 127
-6.410322e-01 6.631777e-01 -4.474665e+00 174 107 127
1.607255e+00 1.241232e+00 -5.358411e+00 69 30 30
9.818429e-01 1.413231e+00 -5.598063e+00 140 24 34
2.409730e+00 -2.783595e+00 -1.005893e+01 103 99 121
2.181863e+00 -2.931757e+00 -1.087125e+01 108 101 117
2.286456e+00 -2.478416e+00 -1.043764e+01 64 53 67
2.209182e+00 -2.306826e+00 -1.080183e+01 74 53 61
2.164212e+00 -2.315406e+00 -1.086031e+01 124 120 134
2.164212e+00 -2.315406e+00 -1.086031e+01 124 120 134
2.300311e+00 -4.676428e-01 -5.343367e+00 240 184 195
2.314056e+00 -4.355493e-01 -5.286800e+00 242 193 212
2.011441e+00 -5.800613e-01 -6.128341e+00 164 169 117
2.320896e+00 -3.630267e-01 -5.268483e+00 234 173 188
2.051155e+00 -4.971120e-01 -6.020588e+00 177 147 41
9.708784e-01 4.180648e-02 -5.478084e+00 171 124 141
-2.907402e-01 1.730060e-02 -4.649507e+00 226 178 187
-2.825568e-01 5.532252e-02 -4.620442e+00 219 171 182
-2.470844e-01 1.229145e-01 -4.577220e+00 157 101 112
-2.470844e-01 1.229145e-01 -4.577220e+00 157 101 112
-6.259685e-01 1.172614e-01 -4.541434e+00 215 151 168
-2.523639e-01 2.593848e-01 -4.541344e+00 157 99 112
-6.189556e-01 2.453926e-01 -4.571679e+00 245 182 191
2.350871e-01 5.491873e-01 -5.247095e+00 233 218 230
2.594574e-01 5.658510e-01 -5.248122e+00 229 219 231
-6.003417e-01 5.904782e-01 -4.504247e+00 241 217 230
4.627055e-01 8.387223e-01 -5.407861e+00 203 132 150
-6.726927e-01 6.758558e-01 -4.474690e+00 232 172 179
5.121401e-01 9.356535e-01 -5.421241e+00 152 22 54
2.597959e+00 -3.114052e+00 -9.548248e+00 111 103 121
2.318339e+00 -3.462263e+00 -1.045898e+01 100 95 114
2.406254e+00 -3.302709e+00 -1.022050e+01 115 112 130
2.420521e+00 -2.983442e+00 -1.013304e+01 117 106 126
2.317222e+00 -2.602679e+00 -1.051052e+01 73 58 66
2.001881e+00 -2.185761e+00 -1.130092e+01 107 92 111
1.819553e+00 -2.378225e+00 -1.201711e+01 97 86 99
1.964974e+00 -1.998929e+00 -1.148555e+01 107 91 101
2.320545e+00 -5.519416e-01 -5.274904e+00 247 142 75
2.041442e+00 -6.839969e-01 -6.052742e+00 215 191 85
2.321808e+00 -3.985802e-01 -5.273930e+00 249 179 194
2.335431e+00 -2.362694e-01 -5.219648e+00 215 78 123
9.208978e-01 5.346016e-02 -5.478922e+00 223 194 208
2.070470e-01 5.364036e-01 -5.246147e+00 239 225 235
4.869889e-02 5.272176e-01 -5.241833e+00 209 176 193
1.489496e+00 9.478082e-01 -5.136136e+00 159 96 109
6.176440e-01 8.820489e-01 -5.433814e+00 212 136 155
9.870629e-01 -2.108736e-01 -5.333732e+00 215 148 157
1.160035e-01 4.774189e-01 -5.321906e+00 243 238 244
-8.597045e-02 5.365399e-01 -5.080929e+00 34 19 22
1.843158e+00 7.341930e-01 -6.097483e+00 192 132 142
7.226641e-02 2.886197e-01 -5.397301e+00 235 234 242
1.299370e-01 1.316930e+00 -5.719910e+00 161 15 26
-1.247842e+00 -2.949232e+00 -1.254242e+01 58 58 69
8.558399e-02 1.884898e-01 -5.542006e+00 198 32 51
1.358192e+00 3.088775e-01 -5.562557e+00 67 9 9
-2.953797e+00 2.989187e+00 -1.225565e+01 23 21 26
3.052526e-01 -3.505713e+00 -1.332342e+01 9 9 9
8.024639e-01 9.366492e-02 -5.552283e+00 238 230 239
1.236538e-02 2.243889e-01 -5.452033e+00 230 212 229
2.164253e+00 -9.608410e-01 -5.736778e+00 202 197 106
1.151171e+00 1.343248e-01 -5.429778e+00 189 123 137
3.801756e-01 4.708709e-01 -5.277696e+00 230 208 219
9.584097e-02 6.854486e-01 -5.325609e+00 91 1 7
1.479855e+00 1.259006e+00 -5.309392e+00 169 119 130
7.674446e-01 -5.114330e+00 -1.498307e+01 42 42 51
2.281716e+00 -3.505874e+00 -1.065430e+01 37 33 48
2.281716e+00 -3.505874e+00 -1.065430e+01 37 33 48
2.816225e+00 -2.713197e+00 -8.846658e+00 60 49 63
2.519383e+00 -2.598797e+00 -9.696842e+00 64 55 67
2.268798e+00 -1.862697e+00 -7.966570e+00 188 174 148
4.436795e-01 -3.290671e+00 -1.310411e+01 104 81 65
2.328870e+00 -2.689585e-01 -5.252934e+00 224 181 194
2.328870e+00 -2.689585e-01 -5.252934e+00 224 181 194
2.069662e+00 -2.512934e-01 -6.019680e+00 220 184 47
6.460579e-01 1.486691e+00 -5.700574e+00 67 1 0
2.533324e+00 -3.027353e+00 -9.748708e+00 53 42 52
2.526756e+00 -3.017043e+00 -9.721834e+00 53 42 52
2.167333e+00 -1.782538e+00 -8.247649e+00 178 171 140
1.455106e+00 -2.599069e+00 -1.239363e+01 110 84 65
1.330056e+00 -2.555317e+00 -1.241693e+01 18 29 45
1.962237e+00 -2.146486e+00 -1.146913e+01 54 41 43
2.303829e+00 -4.712888e-01 -5.295823e+00 225 190 208
1.929217e+00 3.111723e-01 -6.216277e+00 147 111 50
5.633531e-01 7.656603e-01 -5.378714e+00 148 19 29
1.605789e+00 1.238936e+00 -5.352774e+00 69 30 30
2.224017e+00 -3.755184e+00 -1.075760e+01 84 79 97
2.410298e+00 -3.161587e+00 -1.022349e+01 98 89 106
2.690190e+00 -2.678487e+00 -9.137098e+00 56 43 54
1.675725e+00 -3.676369e+00 -1.248958e+01 10 10 12
1.681086e+00 -3.689020e+00 -1.252729e+01 10 10 12
2.560371e+00 -2.702746e+00 -9.612452e+00 59 47 61
2.560371e+00 -2.702746e+00 -9.612452e+00 59 47 61
2.386710e+00 -2.846533e+00 -1.022281e+01 59 52 64
2.386710e+00 -2.846533e+00 -1.022281e+01 59 52 64
1.578554e+00 -2.796452e+00 -1.266310e+01 47 38 45
1.885217e+00 -2.309660e+00 -1.165785e+01 52 42 42
1.794247e+00 -1.001715e+00 -6.584984e+00 203 182 70
2.304469e+00 -4.727466e-01 -5.296964e+00 227 196 213
2.326182e+00 -3.171026e-01 -5.248650e+00 236 188 201
2.330614e+00 -2.645122e-01 -5.226777e+00 245 191 207
1.989192e+00 -2.150454e-01 -5.998820e+00 114 69 10
-3.102250e-01 -2.915426e-02 -4.682468e+00 229 178 190
-2.247325e-01 2.025272e-01 -4.568230e+00 225 164 172
5.559387e-01 2.210226e-01 -5.515283e+00 125 4 14
1.961825e+00 2.644203e-01 -6.232415e+00 84 49 7
-1.742365e-01 4.021938e-01 -4.572923e+00 207 155 168
2.016573e+00 5.597182e-01 -6.120836e+00 176 139 90
4.611004e-01 5.092677e-01 -5.319523e+00 156 27 44
-3.653460e-01 5.262433e-01 -4.516905e+00 189 126 143
-3.653460e-01 5.262433e-01 -4.516905e+00 189 126 143
3.972616e-01 6.227029e-01 -5.203481e+00 219 197 209
5.230125e-01 6.375121e-01 -5.259698e+00 246 224 228
5.230125e-01 6.375121e-01 -5.259698e+00 246 224 228
-3.873982e-01 5.689624e-01 -4.501390e+00 170 104 126
5.907318e-01 7.369302e-01 -5.412845e+00 205 172 197
-4.595725e-01 6.209400e-01 -4.480728e+00 233 178 193
-4.942426e-01 6.493394e-01 -4.481709e+00 226 172 182
-7.209279e-01 6.651687e-01 -4.483502e+00 229 167 180
1.190054e+00 9.880884e-01 -5.102201e+00 184 132 143
2.657296e+00 -2.941017e+00 -9.340458e+00 52 45 57
2.379566e+00 -3.268770e+00 -1.032247e+01 101 97 119
2.319193e+00 -3.264379e+00 -1.042906e+01 105 97 118
2.089952e+00 -3.467085e+00 -1.115202e+01 53 51 65
2.073455e+00 -3.407520e+00 -1.117072e+01 85 78 96
2.019268e+00 -3.364862e+00 -1.133502e+01 39 35 49
2.631528e+00 -2.598306e+00 -9.404353e+00 57 41 47
2.631528e+00 -2.598306e+00 -9.404353e+00 57 41 47
2.284277e+00 -2.779691e+00 -1.058043e+01 57 46 54
1.570127e+00 -3.473413e+00 -1.291854e+01 88 85 103
2.295687e+00 -1.944261e+00 -7.891933e+00 187 178 144
2.417375e+00 -2.480153e+00 -9.989351e+00 67 55 65
1.627462e+00 -3.092832e+00 -1.269521e+01 54 48 60
2.168065e+00 -1.848138e+00 -8.196391e+00 113 98 80
2.008271e+00 -2.363651e+00 -1.137379e+01 63 47 57
2.205904e+00 -2.190948e+00 -1.068318e+01 121 118 134
2.004396e+00 -7.320312e-01 -6.133904e+00 216 192 86
2.309719e+00 -4.979787e-01 -5.367392e+00 221 70 104
2.306642e+00 -4.248188e-01 -5.335179e+00 239 180 193
1.921830e+00 -4.635790e-01 -6.308703e+00 228 191 78
2.084931e+00 -3.773154e-01 -5.954055e+00 229 196 57
2.084931e+00 -3.773154e-01 -5.954055e+00 229 196 57
8.654821e-01 -2.789455e-01 -5.346120e+00 169 46 60
2.040120e+00 -2.809169e-01 -6.004372e+00 97 62 2
2.334572e+00 -2.143956e-01 -5.209861e+00 232 191 210
2.017290e+00 -2.474350e-01 -6.008613e+00 120 75 14
2.334929e+00 -1.683446e-01 -5.244978e+00 240 192 195
1.980564e+00 2.779843e-01 -6.190532e+00 176 139 48
-1.577202e-01 4.174679e-01 -4.609455e+00 171 123 144
-1.473860e-01 4.410731e-01 -4.631382e+00 220 191 199
-7.179072e-01 4.492614e-01 -4.525152e+00 173 160 195
2.706302e-01 5.474182e-01 -5.251950e+00 73 21 45
4.669631e-01 5.871186e-01 -5.269134e+00 243 214 219
2.780505e-01 6.272853e-01 -5.289000e+00 71 6 13
-3.650368e-01 5.638994e-01 -4.522590e+00 237 174 184
-6.064088e-01 6.433839e-01 -4.468627e+00 228 165 173
-6.556390e-01 7.157696e-01 -4.488917e+00 157 100 122
-3.846738e+00 3.789249e+00 -1.200885e+01 146 93 86
2.106122e+00 -3.810615e+00 -1.110351e+01 51 45 59
2.143083e+00 -3.748478e+00 -1.097968e+01 89 87 105
9.190551e-01 -5.216388e+00 -1.484880e+01 48 48 57
2.134129e+00 -3.640364e+00 -1.095156e+01 88 85 102
2.548484e+00 -3.173649e+00 -9.774263e+00 59 54 71
2.803821e+00 -2.797005e+00 -8.858035e+00 56 47 62
2.273208e+00 -3.351691e+00 -1.064343e+01 99 95 118
2.218974e+00 -3.398378e+00 -1.086338e+01 56 46 58
2.671635e+00 -2.811791e+00 -9.336816e+00 117 110 126
2.250888e+00 -3.161630e+00 -1.058595e+01 53 46 61
2.393849e+00 -3.015382e+00 -1.020468e+01 68 59 74
2.058480e+00 -3.329621e+00 -1.128914e+01 88 81 97
1.554417e+00 -3.844142e+00 -1.287995e+01 36 26 32
2.376327e+00 -2.940589e+00 -1.024372e+01 100 93 109
1.891291e+00 -3.443013e+00 -1.184777e+01 52 47 68
1.891291e+00 -3.443013e+00 -1.184777e+01 52 47 68
2.512955e+00 -2.670452e+00 -9.738039e+00 47 34 47
2.003102e+00 -3.214677e+00 -1.153044e+01 90 78 86
1.748644e+00 -3.425750e+00 -1.224350e+01 44 36 49
2.321408e+00 -2.781614e+00 -1.033620e+01 57 46 60
1.890609e+00 -3.110591e+00 -1.181348e+01 57 49 60
1.887775e+00 -3.028341e+00 -1.176490e+01 89 85 99
1.887775e+00 -3.028341e+00 -1.176490e+01 89 85 99
2.366425e+00 -2.443225e+00 -1.021769e+01 106 99 115
2.366425e+00 -2.443225e+00 -1.021769e+01 106 99 115
2.287394e+00 -2.479915e+00 -1.044189e+01 64 53 67
2.287394e+00 -2.479915e+00 -1.044189e+01 64 53 67
1.194248e+00 -3.138885e+00 -1.416161e+01 74 67 78
2.043054e+00 -2.185658e+00 -1.124769e+01 68 55 68
2.165345e+00 -9.586634e-01 -5.738990e+00 197 196 106
2.212534e+00 -1.994767e+00 -1.070350e+01 71 60 79
2.079763e+00 -1.991729e+00 -1.096516e+01 91 79 87
2.079763e+00 -1.991729e+00 -1.096516e+01 91 79 87
1.924181e+00 -2.034288e+00 -1.154788e+01 62 50 55
2.312290e+00 -3.889190e-01 -5.319734e+00 233 187 193
2.095978e+00 -1.876844e-01 -5.933841e+00 175 144 33
2.339971e+00 -1.329198e-01 -5.234898e+00 237 192 205
2.024916e+00 4.944609e-01 -6.080122e+00 139 84 16
-5.050509e-01 4.335525e-01 -4.517685e+00 182 160 191
-6.764663e-01 4.714450e-01 -4.499649e+00 147 198 228
-5.659223e-01 5.811376e-01 -4.496336e+00 235 199 217
5.926873e-01 7.773516e-01 -5.389993e+00 202 159 176
-4.790090e-01 6.666697e-01 -4.482130e+00 146 87 107
4.640541e-01 8.398119e-01 -5.411432e+00 203 132 150
-5.702657e-01 7.313658e-01 -4.493099e+00 216 161 173
5.831629e-01 9.631498e-01 -5.444061e+00 142 34 59
-3.819728e+00 3.320696e+00 -1.191764e+01 144 80 72
-5.262446e+00 3.408989e+00 -1.174947e+01 128 72 58
-5.262446e+00 3.408989e+00 -1.174947e+01 128 72 58
-5.413119e+00 3.398740e+00 -1.167649e+01 125 72 64
-5.413119e+00 3.398740e+00 -1.167649e+01 125 72 64
-3.747525e+00 3.473119e+00 -1.201963e+01 129 57 41
-3.840608e+00 3.492892e+00 -1.208173e+01 130 57 30
-4.946063e+00 3.479270e+00 -1.171396e+01 130 72 56
-3.714550e+00 3.551095e+00 -1.199635e+01 132 53 30
-4.824963e+00 3.590392e+00 -1.178260e+01 134 72 65
-4.783083e+00 3.678058e+00 -1.175672e+01 135 75 58
-3.429506e+00 3.766937e+00 -1.202886e+01 143 85 86
2.200479e+00 -1.413629e+00 -5.568842e+00 214 38 63
7.427780e-01 2.690393e-01 -5.432875e+00 204 29 53
7.427780e-01 2.690393e-01 -5.432875e+00 204 29 53
-4.901740e-01 -2.169112e-01 -4.923519e+00 235 183 196
-5.213907e-01 5.174422e-01 -4.504456e+00 162 189 226
1.978017e+00 9.937006e-01 -5.799338e+00 212 176 116
-3.276872e+00 3.596640e+00 -1.497185e+01 29 26 34
8.277026e-01 1.601351e-02 -5.544639e+00 81 4 10
-3.242138e+00 3.974259e+00 -1.746953e+01 96 85 103
1.173726e+00 -2.590776e+00 -1.315525e+01 25 29 49
1.806803e+00 -9.004492e-01 -6.545646e+00 203 178 60
1.240182e+00 -2.571029e-02 -5.234034e+00 215 151 156
7.479491e-01 8.601619e-02 -5.596157e+00 199 45 81
3.789852e-01 1.380079e-01 -5.433556e+00 204 42 82
7.588675e-01 1.694215e-01 -5.527506e+00 111 13 20
-3.385703e-01 3.805863e-01 -4.536828e+00 211 160 172
5.614491e-01 8.042580e-01 -5.431449e+00 138 12 28
-6.195639e-01 6.908408e-01 -4.473852e+00 224 165 176
1.949403e+00 -2.277643e+00 -1.164794e+01 104 96 105
8.632068e-01 3.385263e-02 -5.521140e+00 223 197 213
2.022072e+00 5.015556e-01 -6.067577e+00 149 93 24
1.066650e+00 5.532699e-01 -5.350017e+00 102 6 13
-5.164786e-01 8.326054e-01 -4.543218e+00 158 124 143
2.766326e+00 -2.951106e+00 -9.013722e+00 122 117 137
2.571531e+00 -3.107376e+00 -9.674233e+00 117 111 132
2.181228e+00 -2.931370e+00 -1.086989e+01 108 101 117
2.489801e+00 -2.464509e+00 -9.866268e+00 120 114 129
2.424661e+00 -2.489193e+00 -1.002259e+01 67 55 65
2.094817e+00 -1.245941e+00 -5.804489e+00 201 153 45
2.094817e+00 -1.245941e+00 -5.804489e+00 201 153 45
2.215596e+00 -2.310333e+00 -1.081882e+01 74 53 61
2.010690e+00 -7.003079e-01 -6.126019e+00 217 194 83
2.045308e+00 -6.067177e-01 -6.058461e+00 163 137 40
2.071200e+00 -3.995243e-01 -5.937471e+00 225 194 63
-5.587126e-01 3.677687e-01 -4.543213e+00 245 237 249
1.049056e+00 4.697057e-01 -5.364890e+00 201 41 74
2.761850e+00 -3.060889e+00 -9.194962e+00 116 113 136
2.365954e+00 -3.308746e+00 -1.025799e+01 51 47 63
2.743242e+00 -2.805978e+00 -9.095164e+00 115 100 121
2.621990e+00 -2.911289e+00 -9.452574e+00 32 30 45
2.497589e+00 -3.015463e+00 -9.959989e+00 115 109 126
2.243624e+00 -3.169479e+00 -1.073000e+01 113 109 127
2.453374e+00 -2.533780e+00 -9.927783e+00 67 61 76
2.286192e+00 -2.712557e+00 -1.054611e+01 116 108 123
2.314401e+00 -2.462596e+00 -1.034680e+01 104 104 123
2.391623e+00 -2.350466e+00 -1.007806e+01 111 103 121
1.965349e+00 -1.998904e+00 -1.148469e+01 107 91 101
2.301239e+00 -4.497268e-01 -5.302326e+00 208 106 133
2.301239e+00 -4.497268e-01 -5.302326e+00 208 106 133
2.294684e+00 -3.963086e-01 -5.327824e+00 206 60 87
2.321226e+00 -3.413545e-01 -5.285294e+00 208 95 123
2.099616e+00 -3.641140e-01 -5.913294e+00 167 135 16
-5.292277e-01 -1.967685e-01 -4.852894e+00 165 188 229
2.332033e+00 -1.480715e-01 -5.249041e+00 215 80 98
2.332033e+00 -1.480715e-01 -5.249041e+00 215 80 98
2.116978e+00 4.065161e-03 -5.868363e+00 167 136 16
2.276196e+00 1.074822e-01 -5.384198e+00 184 158 92
-3.784455e-01 4.189871e-01 -4.562517e+00 220 158 170
3.122137e-01 6.004090e-01 -5.257742e+00 187 157 176
-4.562340e-01 8.137667e-01 -4.553111e+00 132 93 111
-2.368461e+00 2.904441e+00 -1.182237e+01 91 86 95
1.532114e+00 3.573714e-01 -5.801273e+00 205 41 51
-2.379567e+00 1.548836e+00 -1.217463e+01 124 105 114
1.772936e+00 -9.779886e-01 -6.526622e+00 226 207 90
-4.736774e-01 3.187489e-01 -4.635361e+00 223 153 168
-4.736774e-01 3.187489e-01 -4.635361e+00 223 153 168
1.297047e+00 1.369621e-01 -5.348945e+00 132 26 23
9.649017e-01 1.613435e-01 -5.566623e+00 135 14 22
-6.119643e-01 2.125588e-01 -4.552792e+00 223 160 168
1.358662e+00 1.165616e+00 -5.195452e+00 200 144 155
-1.806689e+00 1.810919e+00 -1.127631e+01 121 100 115
-2.503837e-01 -8.652707e-02 -4.863612e+00 251 208 218
1.129142e+00 8.507627e-02 -5.312978e+00 134 59 62
7.422657e-01 -2.247677e+00 -1.206061e+01 150 127 125
-4.997698e-01 3.032617e-01 -4.538468e+00 217 152 166
4.629149e-01 5.885945e-01 -5.285751e+00 249 236 236
2.014053e+00 -1.659400e+00 -8.679730e+00 197 186 164
1.802060e+00 -9.133537e-01 -6.534828e+00 234 210 88
2.054982e+00 -5.213428e-01 -5.978825e+00 243 216 80
2.084296e+00 -4.273241e-01 -5.906893e+00 190 158 35
2.086227e+00 -4.266872e-01 -5.907911e+00 190 158 35
-2.785247e-01 3.370146e-01 -4.528096e+00 186 125 131
-3.112431e-01 3.935753e-01 -4.530851e+00 149 91 108
-6.121663e-01 7.207886e-01 -4.490636e+00 184 119 134
2.215733e+00 -2.200262e+00 -1.071640e+01 153 149 170
1.986724e+00 -7.052616e-01 -6.155213e+00 184 192 135
1.994090e+00 -7.107864e-01 -6.173393e+00 184 192 135
2.059223e+00 -4.777655e-01 -5.982703e+00 246 219 83
1.148481e+00 -2.449935e-01 -5.234355e+00 163 93 103
1.223236e+00 -6.004006e-02 -5.218226e+00 156 83 91
-2.942433e-01 3.189813e-01 -4.529331e+00 247 197 208
2.482439e+00 -2.867050e+00 -9.908164e+00 140 131 150
2.404767e+00 -2.538048e+00 -1.008776e+01 128 115 128
2.265376e+00 -2.677584e+00 -1.057949e+01 80 68 82
2.008739e+00 -7.873793e-01 -6.111406e+00 200 170 46
2.008739e+00 -7.873793e-01 -6.111406e+00 200 170 46
2.052342e+00 -7.445271e-01 -6.039350e+00 200 173 44
2.012940e+00 -7.250615e-01 -6.081504e+00 196 170 45
2.012940e+00 -7.250615e-01 -6.081504e+00 196 170 45
1.870468e+00 -2.098256e+00 -1.173774e+01 74 49 49
2.085031e+00 -3.951044e-01 -5.903607e+00 206 173 42
-6.332360e-01 -3.020399e-01 -5.090952e+00 236 189 200
2.082154e+00 -2.941455e-01 -5.964595e+00 206 171 32
-6.644353e-01 -1.558331e-01 -4.915791e+00 157 204 237
-6.701813e-01 -1.147184e-01 -4.875166e+00 119 141 190
9.126840e-01 1.450411e-01 -5.544025e+00 150 41 66
-6.357095e-01 3.020126e-01 -4.555487e+00 228 166 183
-4.360147e-01 3.681237e-01 -4.539702e+00 202 130 146
4.262771e-01 5.796057e-01 -5.245793e+00 155 106 126
4.380290e-01 6.006399e-01 -5.255655e+00 247 224 229
-7.643232e-01 7.307569e-01 -4.525012e+00 249 196 203
1.565257e+00 1.262654e+00 -5.340834e+00 189 140 135
9.094460e-01 4.724441e-01 -5.341632e+00 213 195 202
9.094460e-01 4.724441e-01 -5.341632e+00 213 195 202
2.469398e+00 -3.077645e+00 -9.998785e+00 65 50 61
1.818509e+00 -3.683811e+00 -1.207258e+01 90 91 111
1.818509e+00 -3.683811e+00 -1.207258e+01 90 91 111
-2.713736e-01 2.610881e-01 -4.521164e+00 225 173 182
5.488879e-01 9.689287e-01 -5.437076e+00 140 30 54
1.549424e+00 2.590526e+00 -7.096893e+00 141 136 153
-3.396272e-01 3.740856e-01 -4.528595e+00 240 193 203
3.814177e-02 6.198502e-01 -5.303165e+00 233 45 74
-2.741298e+00 8.990344e-01 -1.229794e+01 117 96 105
6.437183e-01 1.486998e+00 -5.690917e+00 96 5 3
2.326629e+00 -4.979387e-01 -5.277563e+00 255 64 99
2.326629e+00 -4.979387e-01 -5.277563e+00 255 64 99
2.386635e-01 5.223607e-01 -5.240799e+00 104 39 63
8.618215e-01 6.412885e-01 -5.428129e+00 234 44 79
4.879952e-01 7.867160e-01 -5.403329e+00 180 37 58
1.163510e+00 1.240502e+00 -5.526238e+00 75 43 27
2.511992e+00 -3.201387e+00 -9.880938e+00 128 117 139
1.108696e+00 -2.261750e-01 -5.228919e+00 244 181 190
2.944199e-01 5.068534e-01 -5.248045e+00 150 99 104
6.058755e-01 8.527551e-01 -5.424849e+00 194 28 51
1.450444e+00 1.134595e+00 -5.184997e+00 185 130 132
2.375150e-01 1.095123e+00 -5.474944e+00 117 3 7
6.126495e-01 1.231217e+00 -5.697047e+00 78 0 0
-2.690897e-01 1.554913e+00 -9.167513e+00 6 6 4
1.254706e+00 2.253581e+00 -7.710113e+00 19 14 17
1.592466e+00 -4.610040e+00 -1.295826e+01 92 88 103
2.390994e+00 -3.410940e+00 -1.023134e+01 126 118 137
2.004733e+00 -3.856718e+00 -1.149245e+01 117 113 130
1.704265e+00 -4.347764e+00 -1.264619e+01 60 44 54
1.951104e+00 -3.226651e+00 -1.157413e+01 74 62 78
1.990162e+00 -8.006368e-01 -6.150236e+00 242 216 84
1.998919e+00 -6.934787e-01 -6.102158e+00 240 220 94
5.236705e-01 7.794947e-01 -5.417760e+00 230 194 214
5.236705e-01 7.794947e-01 -5.417760e+00 230 194 214
-2.666052e-01 1.502183e+00 -9.194128e+00 72 59 60
-5.518024e-01 1.555964e+00 -9.748868e+00 14 12 15
1.528283e+00 2.158401e+00 -7.197378e+00 115 95 82
1.528283e+00 2.158401e+00 -7.197378e+00 115 95 82
2.503930e+00 -3.248624e+00 -9.956644e+00 124 118 149
2.569637e+00 -3.099182e+00 -9.647515e+00 146 138 160
1.734662e+00 -4.236692e+00 -1.244737e+01 106 103 119
2.650154e+00 -2.909990e+00 -9.409988e+00 124 114 122
2.196874e+00 -3.134318e+00 -1.079531e+01 117 110 129
1.753216e+00 -3.147812e+00 -1.217437e+01 110 102 119
-6.250487e-01 1.178744e-01 -4.540681e+00 236 173 188
-3.132929e-01 4.181706e-01 -4.561079e+00 196 138 152
5.137996e-01 8.290319e-01 -5.413115e+00 235 153 173
6.262032e-01 9.570645e-01 -5.444197e+00 162 28 49
5.060370e-01 9.575191e-01 -5.426911e+00 223 201 224
2.334890e+00 -1.971742e-01 -5.231543e+00 227 157 174
2.366696e+00 3.553572e-02 -5.173860e+00 221 180 195
2.318489e+00 -2.674504e-01 -5.241955e+00 205 169 184
2.357847e+00 -2.425641e-01 -5.197071e+00 213 36 57
2.344677e+00 -1.200532e-01 -5.206569e+00 220 180 189
2.334066e+00 -4.444832e-04 -5.238347e+00 214 39 53
2.369444e+00 1.590922e-01 -5.115574e+00 220 188 205
2.379012e+00 1.552862e-01 -5.129392e+00 220 188 205
2.337221e+00 -4.268018e-01 -5.260273e+00 214 37 60
-3.070306e+00 -6.816648e-01 -1.475524e+01 103 100 125
-4.635881e-01 6.215734e-01 -4.472228e+00 220 167 180
-7.051887e-01 6.432481e-01 -4.462471e+00 158 96 117
2.658341e+00 -2.819537e+00 -9.409457e+00 87 79 92
2.064511e+00 -6.234972e-01 -5.995122e+00 161 135 39
2.071036e+00 -4.363963e-01 -5.961253e+00 213 182 65
2.343623e+00 -5.192941e-02 -5.218700e+00 228 185 199
-3.097333e+00 -7.170419e-01 -1.494876e+01 105 101 122
-2.161396e+00 2.898006e-01 -1.192498e+01 30 23 27
-2.161396e+00 2.898006e-01 -1.192498e+01 30 23 27
-5.052558e-01 4.326792e-01 -4.514593e+00 168 140 174
4.789791e-01 1.016960e+00 -5.430733e+00 204 168 181
4.789791e-01 1.016960e+00 -5.430733e+00 204 168 181
2.751137e+00 -2.933537e+00 -8.981125e+00 81 74 89
2.056198e+00 -6.643214e-01 -6.000589e+00 159 131 35
2.056198e+00 -6.643214e-01 -6.000589e+00 159 131 35
2.328546e+00 -3.172910e-01 -5.249397e+00 226 180 196
2.334546e+00 -2.622446e-01 -5.230241e+00 229 182 199
2.346139e+00 4.452574e-02 -5.211417e+00 229 167 175
2.346139e+00 4.452574e-02 -5.211417e+00 229 167 175
2.386626e+00 1.840518e-01 -5.117758e+00 208 43 65
2.383663e+00 2.735281e-01 -5.079185e+00 190 71 99
-1.880156e+00 3.980350e-01 -1.148449e+01 41 29 37
-1.783458e+00 4.548510e-01 -1.132959e+01 39 29 37
-7.883233e-01 5.904549e-01 -4.482327e+00 177 111 130
4.608676e-01 8.381140e-01 -5.404775e+00 183 112 129
6.122525e-01 9.089871e-01 -5.435285e+00 134 8 22
2.648290e+00 -2.738208e+00 -9.313425e+00 41 31 41
2.029442e+00 -7.911842e-01 -6.102833e+00 205 177 65
2.344250e+00 -2.148986e-01 -5.218695e+00 235 185 202
2.337568e+00 -1.325011e-01 -5.226768e+00 230 182 190
2.360252e+00 6.039896e-03 -5.171619e+00 190 82 110
2.360252e+00 6.039896e-03 -5.171619e+00 190 82 110
2.388566e+00 1.633655e-01 -5.100568e+00 232 168 187
2.381172e+00 2.059891e-01 -5.071444e+00 249 156 168
2.381172e+00 2.059891e-01 -5.071444e+00 249 156 168
9.922814e-01 1.430186e+00 -5.568440e+00 190 117 131
2.339222e+00 -1.939921e-01 -5.233831e+00 227 157 174
2.323607e+00 -1.336372e-01 -5.279353e+00 217 38 44
2.370671e+00 8.293569e-02 -5.152376e+00 231 165 180
2.370671e+00 8.293569e-02 -5.152376e+00 231 165 180
2.346254e+00 -1.186892e-01 -5.207704e+00 220 180 189
2.382700e+00 3.491971e-02 -5.116390e+00 208 46 66
2.396010e+00 1.389101e-01 -5.090482e+00 212 43 79
2.078209e+00 -4.598774e-01 -5.924863e+00 154 125 24
2.070004e+00 -1.818870e-01 -5.886124e+00 164 134 26
2.247319e+00 -1.872921e-01 -5.480869e+00 175 143 24
2.247319e+00 -1.872921e-01 -5.480869e+00 175 143 24
2.357482e+00 -3.893273e-02 -5.187093e+00 195 79 113
2.357482e+00 -3.893273e-02 -5.187093e+00 195 79 113
2.353371e+00 6.251597e-02 -5.188709e+00 199 74 90
2.451709e+00 3.538206e-01 -4.954848e+00 250 148 75
2.347901e+00 9.841386e-02 -5.209381e+00 255 60 100
2.411462e+00 2.138858e-01 -5.052234e+00 255 64 106
2.394502e+00 1.552749e-01 -5.066265e+00 255 65 107
-6.870864e-01 1.204270e+00 -6.892038e+00 67 52 60
2.472828e+00 3.918888e-01 -4.914346e+00 228 109 50
2.403510e+00 2.688137e-01 -5.072685e+00 255 198 213
2.394808e+00 2.121441e-01 -5.111414e+00 248 69 109
2.659659e-01 1.438366e-01 -7.529440e-01 0 255 0
2.647998e-01 1.425935e-01 -8.029149e-01 255 255 0
-2.332237e-01 6.827652e-01 -5.021546e-01 255 0 0
-2.318227e-01 6.795709e-01 -5.520328e-01 255 255 0
-7.264117e-01 2.790851e-01 -9.831383e-01 0 255 0
-7.165561e-01 2.765648e-01 -1.032093e+00 255 255 0
-7.546715e-01 1.879090e+00 -8.828527e-01 255 0 0
-7.434110e-01 1.868955e+00 -9.305023e-01 255 255 0
-2.111191e+00 1.513359e+00 -4.835759e+00 0 255 0
-2.068161e+00 1.511761e+00 -4.861172e+00 255 255 0
